13.335427 -76.149033 73.311333 -0.526334 0.720178 0.452013 
13.093690 -73.353271 69.686333 -0.955809 -0.287988 0.059098 
13.635532 -76.399170 73.249664 -0.526334 0.720178 0.452013 
13.245875 -72.439636 67.798645 -0.968027 -0.068420 -0.241334 
13.518913 -70.905113 67.259018 -0.998614 -0.021390 0.048091 
13.274729 -71.702774 64.419609 -0.998614 -0.021390 0.048091 
13.863464 -74.454010 70.779503 -0.849970 0.263415 0.456249 
13.596394 -72.783234 67.535446 -0.968027 -0.068420 -0.241334 
13.723984 -72.396843 66.880043 -0.998614 -0.021390 0.048091 
14.029951 -73.995544 70.312004 -0.849970 0.263415 0.456249 
13.998775 -75.165688 72.266090 -0.526334 0.720178 0.452013 
13.673260 -72.992065 70.103981 -0.955809 -0.287988 0.059098 
-1.973656 67.380928 66.711716 0.000001 -0.411680 0.911328 
-1.906208 71.868813 71.360023 -0.030506 -0.150949 -0.988071 
-1.067581 68.523254 67.278152 0.000001 -0.411680 0.911328 
-0.765998 72.126305 71.042648 -0.030506 -0.150949 -0.988071 
-0.265018 68.490387 67.086060 0.000001 -0.411680 0.911328 
0.542884 72.063461 71.091461 -0.030506 -0.150949 -0.988071 
0.537548 68.523254 67.278152 0.000001 -0.411680 0.911328 
1.376178 71.868813 71.360023 -0.051546 0.194730 0.979501 
1.443612 67.380920 66.711708 -0.669915 -0.689126 0.276259 
2.259352 70.991409 71.198830 -0.551645 -0.770811 -0.318649 
2.350136 66.155441 66.561928 -0.775007 -0.631677 0.018649 
2.951254 70.226784 71.724022 -0.519483 -0.665682 -0.535728 
3.062569 68.620949 73.317986 -0.519483 -0.665682 -0.535728 
3.048052 65.609802 67.281097 -0.775007 -0.631677 0.018649 
3.222160 69.675461 72.747528 -0.519483 -0.665682 -0.535728 
3.320052 65.045464 68.277634 -0.775007 -0.631677 0.018649 
-1.933524 81.880806 88.536377 0.133877 0.712036 0.689262 
-1.751827 81.065025 81.617928 0.000004 -0.798244 0.602334 
-1.691507 85.848335 84.709412 -0.057522 -0.318981 0.946014 
-1.668330 90.602806 86.899048 0.020324 0.303405 -0.952645 
-0.985024 80.666649 80.954445 0.000004 -0.798244 0.602334 
-0.954744 85.397453 84.158066 -0.057522 -0.318981 0.946014 
-0.662457 89.703514 86.192513 -0.126633 -0.253103 0.959116 
-0.929349 93.892372 87.666183 0.020324 0.303405 -0.952645 
-0.265018 81.257660 81.346146 0.000004 -0.798244 0.602334 
0.141406 85.580994 84.184601 -0.057522 -0.318981 0.946014 
0.248393 90.607117 86.614632 -0.126633 -0.253103 0.959116 
0.454990 80.666649 80.954437 -0.204665 -0.427526 0.880531 
1.138296 90.602753 86.899033 -0.354763 -0.050947 0.933567 
1.161474 85.848351 84.709419 0.300509 0.267776 -0.915418 
1.221791 81.065056 81.617950 -0.204665 -0.427526 0.880531 
1.403480 81.880829 88.536392 0.029863 0.884862 0.464896 
1.896105 89.180313 86.897423 -0.745247 -0.653107 0.134380 
1.931595 83.757385 84.063087 0.468213 0.227165 -0.853916 
2.017856 79.670898 81.142364 -0.204665 -0.427526 0.880531 
2.178289 82.130928 87.692513 0.956255 0.011950 0.292291 
2.524027 88.726036 87.487770 -0.745247 -0.653107 0.134380 
2.587196 83.672836 84.930443 -0.926963 -0.346739 0.143219 
2.740432 82.638168 86.769775 0.956255 0.011950 0.292291 
2.810988 88.319023 88.361763 -0.745247 -0.653107 0.134380 
2.922987 81.140732 84.541290 -0.925159 -0.144104 0.351162 
0.121909 -55.935326 41.789150 0.279150 -0.708575 -0.648071 
0.188621 -57.152500 42.977043 0.279150 -0.708575 -0.648071 
2.076122 -55.784241 42.199951 0.279150 -0.708575 -0.648071 
4.094320 -56.200043 43.736176 0.279150 -0.708575 -0.648071 
-3.850093 65.045380 68.277557 -0.970248 0.183828 -0.157561 
-3.752202 69.675392 72.747444 -0.968976 0.203444 -0.140346 
-3.592599 68.621017 73.318062 -0.968976 0.203444 -0.140346 
-3.578086 65.609673 67.280983 -0.881942 0.329509 -0.337049 
-3.481293 70.226662 71.723907 -0.968976 0.203444 -0.140346 
-2.880177 66.155396 66.561882 -0.881942 0.329509 -0.337049 
-2.789396 70.991409 71.198830 -0.969797 0.152404 -0.190437 
-1.130301 56.152542 58.546112 0.135706 0.334169 -0.932692 
-0.265018 56.376106 58.509628 0.135706 0.334169 -0.932692 
0.600265 56.152550 58.546116 0.135706 0.334169 -0.932692 
1.518616 55.428120 58.689953 0.135706 0.334169 -0.932692 
1.735970 51.307899 57.080200 -0.407870 -0.337813 0.848248 
2.668087 51.062504 57.821423 -0.407870 -0.337813 0.848248 
13.154182 0.029646 60.496349 -0.987070 -0.024533 -0.158398 
13.467865 -6.367367 59.532383 -0.987070 -0.024533 -0.158398 
-16.876919 20.598286 36.271809 -0.996402 0.059991 -0.059869 
-16.897705 23.675333 41.518761 -0.994468 0.100703 -0.029860 
-16.673309 25.790094 37.592651 -0.992362 0.123222 -0.005799 
-16.618958 26.669949 41.796665 -0.987180 0.159534 -0.004907 
-16.347330 21.723007 30.001225 -0.994438 0.066196 -0.081923 
-16.406759 27.936342 36.935253 -0.981593 0.189156 -0.026361 
-16.149168 26.966259 31.880594 -0.974598 0.197912 -0.104831 
-16.123816 29.722176 38.050346 -0.951553 0.306187 -0.028204 
-16.115618 29.325510 41.691246 -0.959771 0.269373 0.079239 
-15.764745 30.047508 33.509350 -0.961743 0.258894 -0.089575 
-15.865903 26.372486 28.930632 -0.991486 0.102493 -0.080321 
-15.327917 31.279232 29.126001 -0.946617 0.319995 0.038974 
-15.736166 30.928589 40.035275 -0.932205 0.361268 0.021918 
-14.976044 32.457848 38.453880 -0.887713 0.460390 0.002462 
-15.238511 31.505251 33.056828 -0.888172 0.445024 0.114470 
-14.800743 32.975910 30.048870 -0.946617 0.319995 0.038974 
-15.027144 32.355560 41.460037 -0.895675 0.438905 0.071609 
-14.357160 33.389248 37.838581 -0.852374 0.522016 -0.030935 
-14.654156 32.631973 33.319866 -0.892690 0.440501 0.095200 
-14.381682 34.321171 28.889900 -0.935076 0.340153 0.099644 
-13.863948 34.118683 40.540028 -0.860450 0.509502 0.005808 
-13.878884 33.810661 33.489025 -0.874525 0.476551 0.090034 
-13.653000 34.058960 35.621735 -0.809381 0.586453 -0.031222 
-6.279671 31.909693 29.126026 0.900936 0.236180 -0.364052 
-6.389993 33.161278 30.150419 -0.924302 -0.295090 0.242050 
-5.984514 34.318771 33.364338 -0.710357 -0.473575 0.520691 
-5.460663 32.000160 31.817616 0.900936 0.236180 -0.364052 
-5.181828 29.728014 30.833643 -0.828724 -0.362864 0.426083 
-5.306764 34.145687 34.323883 0.635675 0.414605 -0.651169 
-3.905584 22.515402 29.606413 -0.786568 -0.129704 0.603728 
-4.598262 32.163517 33.515587 -0.591939 -0.586753 0.552566 
-3.869710 26.062414 31.015476 -0.537927 -0.326506 0.777193 
-4.052639 34.137054 35.668781 0.419746 0.468252 -0.777531 
-3.910471 29.506851 32.619579 -0.630794 -0.279145 0.724001 
-3.325270 19.482378 30.136175 -0.786568 -0.129704 0.603728 
-3.658466 34.300167 35.321579 -0.401264 -0.646922 0.648443 
-3.683396 31.933395 34.159790 0.328554 0.454948 -0.827692 
-3.474040 24.687834 30.721519 -0.610583 -0.261915 0.747388 
-3.356626 29.629576 32.509182 -0.630794 -0.279145 0.724001 
-3.374370 32.222549 33.804493 0.328554 0.454948 -0.827692 
-2.856660 24.776228 31.499086 -0.610583 -0.261915 0.747388 
-2.530096 30.225506 33.316620 0.383833 0.381775 -0.840786 
-2.234100 33.515800 35.626724 -0.368049 -0.628665 0.685070 
-2.202295 27.201969 32.601856 -0.525418 -0.280189 0.803386 
-2.070632 31.859491 34.401394 0.347347 0.517375 -0.782095 
-4.098099 51.507034 60.455711 -0.992054 0.053901 0.113685 
-3.882882 52.035065 62.189770 -0.898608 0.274997 0.341878 
-3.924654 50.489388 58.863586 -0.978617 0.187425 -0.084736 
-3.923776 59.640636 64.338348 0.313503 0.814567 0.488054 
-3.756462 58.960674 65.472206 -0.149011 0.855319 0.496212 
-3.725458 53.962463 59.984169 -0.978617 0.187425 -0.084736 
-3.656075 63.362637 68.419144 -0.865934 -0.293388 0.405069 
-3.621360 60.051701 63.154812 0.080394 -0.902256 -0.423639 
-3.246215 52.147472 63.569851 -0.898608 0.274997 0.341878 
-3.142421 58.075294 66.313629 -0.149011 0.855319 0.496212 
-3.037731 62.950592 69.557251 -0.812752 -0.322947 0.484911 
-2.985863 55.192669 59.422653 -0.978617 0.187425 -0.084736 
-2.928374 60.522640 62.315575 0.080394 -0.902256 -0.423639 
-2.312407 51.956215 64.538368 -0.898608 0.274997 0.341878 
-2.223634 58.102169 67.439316 -0.149011 0.855319 0.496212 
-2.143873 62.537189 70.432892 -0.798850 -0.315523 0.512138 
-2.074890 60.917824 61.804077 0.080394 -0.902256 -0.423639 
11.536624 -29.313131 57.771294 -0.915503 -0.081079 -0.394056 
12.397702 -37.376324 57.981190 -0.959355 -0.057257 -0.276332 
12.233080 -31.729185 56.588264 -0.915503 -0.081079 -0.394056 
12.555334 -26.123077 55.547852 -0.915503 -0.081079 -0.394056 
12.572543 -39.964561 56.326797 -0.959355 -0.057257 -0.276332 
12.576689 -29.651398 55.257515 -0.915503 -0.081079 -0.394056 
-13.633836 -9.821874 42.242455 -0.933455 0.097777 -0.345110 
-13.067364 3.879632 42.925064 -0.967379 -0.163410 -0.193586 
-12.759152 -0.085711 43.676811 -0.965852 -0.131048 -0.223510 
-11.877388 3.978817 35.835537 -0.874911 -0.346422 -0.338413 
-12.149258 -6.767475 39.087322 0.924537 -0.101824 0.367238 
-11.467029 1.237990 37.343437 0.915189 0.248566 0.317243 
-11.937553 -0.636815 40.785751 -0.976313 -0.024026 -0.215024 
-11.739184 -10.242785 36.732750 -0.884531 0.176322 -0.431875 
-11.398049 -3.973692 37.780193 0.925257 -0.042032 0.377005 
-11.126862 -0.820010 37.262600 -0.913929 -0.021372 -0.405312 
-11.152441 3.928195 33.496441 -0.814763 -0.352819 -0.460087 
-11.136245 -9.701559 35.689358 -0.859443 0.077906 -0.505261 
-10.944365 -3.772783 36.446030 -0.927358 0.038621 -0.372176 
-10.951917 1.827210 34.973499 -0.897416 -0.260214 -0.356277 
-10.251035 -0.361022 34.822186 -0.749198 -0.127894 -0.649881 
-10.395880 -6.111173 34.932201 -0.873751 0.048241 -0.483976 
-10.106177 -1.720645 34.756104 -0.783817 -0.113030 -0.610618 
-10.406784 -9.823690 34.374092 -0.832551 0.099527 -0.544934 
-10.095545 1.959489 33.427681 -0.744640 -0.377145 -0.550702 
-9.121519 2.103014 32.396290 -0.575328 -0.298904 -0.761350 
-9.747207 -7.252302 33.867928 0.712517 -0.094936 0.695202 
-8.756056 -1.494738 33.068336 -0.739607 -0.069007 -0.669491 
-8.776284 -0.077123 33.022911 0.745383 0.228715 0.626174 
-8.815086 -7.737326 32.805538 0.712517 -0.094936 0.695202 
-8.182457 3.946844 31.039097 -0.410459 -0.327634 -0.850987 
-7.605108 -1.244766 32.056835 0.576819 0.056706 0.814901 
-7.417134 -7.888630 31.653166 -0.489842 0.178342 -0.853375 
-6.856259 0.127814 31.496273 0.476718 0.077572 0.875627 
-7.240048 -3.882611 31.622046 0.495085 -0.067306 0.866234 
-7.507697 1.475321 31.673784 0.451166 0.164439 0.877160 
-6.636988 3.269729 30.782072 -0.276750 -0.260480 -0.924965 
-6.086435 -10.494454 30.528862 -0.396487 0.138491 -0.907534 
-5.624625 1.847505 30.708965 0.310449 0.173788 0.934569 
-5.944873 -7.595728 30.865767 -0.396487 0.138491 -0.907534 
-5.574376 -0.982785 30.846924 0.463373 0.087633 0.881820 
-4.497392 -7.543192 30.381104 -0.396487 0.138491 -0.907534 
-4.576895 -10.625666 29.966160 -0.396487 0.138491 -0.907534 
-4.291946 -2.465059 30.452810 -0.419912 0.005637 -0.907547 
-4.370603 3.035757 30.296360 -0.170436 -0.315018 -0.933657 
-2.493447 2.743961 30.323092 0.123382 0.062314 0.990401 
7.509848 -54.597240 45.808346 0.793084 -0.469112 -0.388525 
7.948034 -52.863487 44.283718 -0.766568 0.536007 0.353651 
8.475208 -55.446346 48.241825 -0.837961 0.344976 0.422863 
8.744061 -52.604984 45.479645 -0.766568 0.536007 0.353651 
9.119570 -53.658276 47.982098 -0.872624 0.364378 0.325202 
9.700851 -52.792976 48.632755 -0.907428 0.277379 0.315650 
9.673034 -54.578178 50.082108 -0.894489 0.332865 0.298478 
10.046062 -50.115128 44.554459 -0.820853 0.546642 0.165476 
10.297934 -53.476666 51.582855 0.957184 -0.210436 -0.198785 
10.334343 -53.855583 58.142162 0.994246 -0.081677 0.069311 
10.432237 -51.267914 57.496735 0.990311 -0.109703 0.085138 
10.447785 -51.642754 50.520241 -0.946650 0.277936 0.163111 
10.641788 -52.918144 53.343098 0.989837 -0.114392 -0.084478 
10.764869 -49.957073 48.128452 -0.899657 0.433313 0.053456 
10.842540 -49.702953 56.089931 0.974279 -0.208967 0.084337 
10.713546 -52.468731 55.224880 -0.993548 0.087226 -0.072489 
10.880725 -50.169144 53.445816 -0.989427 0.144270 -0.014860 
10.988999 -49.743839 50.736649 -0.909287 0.415509 0.023432 
11.093886 -47.675735 57.467651 0.971924 -0.195352 0.131156 
11.774166 -47.443691 44.475143 0.888043 -0.440936 -0.130210 
11.374982 -48.517986 54.451149 -0.950815 0.282672 -0.126681 
12.012339 -47.773674 47.251545 -0.914093 0.396535 0.084819 
12.095879 -43.430470 56.636578 0.959455 -0.214011 0.183424 
12.402540 -45.245182 53.699883 -0.967847 0.204135 -0.146975 
12.097316 -47.852604 49.823235 0.932515 -0.358553 0.043085 
12.572227 -45.858738 51.508221 -0.957304 0.271905 -0.098170 
12.739503 -45.052826 46.326897 0.954945 -0.288004 -0.071655 
12.797273 -45.269302 49.181274 -0.965733 0.259055 0.015807 
-15.172648 -38.340801 45.653210 -0.994514 -0.059850 0.085791 
-15.151373 -36.234283 45.885937 -0.994867 -0.056147 0.084186 
-15.085640 -35.752254 48.214001 -0.994813 -0.029968 0.097207 
-14.926203 -40.209381 46.452999 -0.994451 -0.045562 0.094818 
-14.788014 -38.125645 49.415131 -0.990618 -0.062743 0.121403 
-14.450959 -36.390469 52.634174 -0.971823 -0.000212 0.235712 
-14.766190 -39.525482 48.515079 -0.991442 -0.076943 0.105460 
-14.661421 -32.113346 46.101852 -0.992007 0.088149 0.090287 
-14.759714 -34.664227 50.564087 -0.983160 0.116829 0.140529 
-14.620065 -28.749193 46.372337 -0.993216 -0.006114 0.116122 
-14.307485 -31.252977 49.657349 -0.994491 0.058737 0.086814 
-14.308078 -27.829124 50.689362 -0.992699 -0.005093 0.120510 
-14.305468 -34.563049 53.112709 -0.966437 0.107972 0.233115 
-13.895206 -31.450291 52.666355 -0.986627 0.077747 0.143259 
-13.789202 -27.881380 53.012779 -0.958738 0.036695 0.281914 
-13.552342 -37.343166 55.697433 -0.948594 -0.098065 0.300919 
-13.553320 -35.374371 55.866444 -0.947181 0.016904 0.320253 
-13.504928 -31.255241 54.218689 -0.942181 0.093849 0.321694 
-12.907484 -40.247116 56.299458 0.930919 0.082533 -0.355779 
-12.848355 -28.850355 55.740154 0.926532 -0.060605 -0.371303 
-12.378547 -35.810966 58.655224 -0.922368 0.093634 0.374793 
-12.508895 -31.804026 56.969254 -0.922970 0.115436 0.367152 
-12.407302 -37.517941 58.733971 0.930919 0.082533 -0.355779 
-11.797297 -29.329058 58.116165 0.926532 -0.060605 -0.371303 
13.374109 -36.723026 55.070736 0.966738 -0.078245 0.243507 
13.096251 -39.848526 53.940289 -0.959079 0.159168 -0.234165 
13.024046 -31.526716 54.325958 -0.952319 -0.118420 -0.281184 
13.130517 -35.114262 55.865040 -0.980310 0.010104 -0.197204 
13.449005 -28.301340 52.080559 -0.984620 -0.111434 -0.134558 
13.190594 -26.677649 53.543739 -0.984620 -0.111434 -0.134558 
13.428523 -40.572006 51.022541 -0.970583 0.179688 -0.160251 
13.905286 -33.603752 52.656845 -0.948901 -0.140344 -0.282648 
13.947275 -28.757137 49.260391 -0.969767 -0.128122 -0.207696 
14.018270 -30.482103 50.632812 -0.979694 -0.103509 -0.171713 
13.808491 -28.075258 50.191120 -0.969767 -0.128122 -0.207696 
14.596671 -36.249821 50.054359 -0.986863 0.028418 -0.159043 
14.023544 -26.462852 45.637138 -0.950879 -0.250207 -0.182276 
14.723790 -36.403778 47.005688 -0.989056 0.123455 -0.080790 
14.247377 -26.478374 46.055981 -0.950879 -0.250207 -0.182276 
14.646591 -29.001348 47.025280 -0.950879 -0.250207 -0.182276 
14.756107 -34.290028 49.892410 -0.981277 -0.008820 -0.192398 
15.079221 -34.639305 46.500412 -0.994137 0.091240 -0.058022 
15.132026 -33.277077 47.478657 -0.994137 0.091240 -0.058022 
15.232454 -31.980104 44.914822 -0.988297 -0.020303 -0.151184 
-3.453027 81.140694 84.541267 -0.968174 0.244722 0.052443 
-3.341024 88.318970 88.361740 -0.966444 0.115438 -0.229479 
-3.270461 82.638176 86.769775 -0.968174 0.244722 0.052443 
-3.117233 83.672806 84.930420 -0.968174 0.244722 0.052443 
-3.054067 88.725922 87.487724 -0.859882 0.247706 -0.446369 
-2.708318 82.130905 87.692497 -0.968174 0.244722 0.052443 
-2.547894 79.670944 81.142395 -0.953766 0.178340 -0.241920 
-2.461627 83.757309 84.063034 -0.968174 0.244722 0.052443 
-2.426135 89.180313 86.897423 -0.859882 0.247706 -0.446369 
4.138900 -24.935671 3.474643 0.443693 -0.864219 0.237195 
4.459246 -24.016350 9.263932 -0.967584 0.252367 0.009570 
4.559025 -25.109175 10.202629 -0.967584 0.252367 0.009570 
4.313951 -24.507307 6.272599 -0.755431 0.651038 -0.073982 
4.620276 -23.984444 11.621666 -0.967584 0.252367 0.009570 
5.280513 -23.689446 4.861960 -0.611305 0.772687 -0.171056 
4.773194 -23.235712 9.864674 -0.967584 0.252367 0.009570 
4.937120 -24.841700 2.761872 0.463191 -0.784011 0.413257 
5.195289 -22.617134 9.500768 0.764393 -0.627842 0.146689 
6.275708 -21.989323 7.757918 -0.441778 0.896429 -0.035308 
6.973240 -24.205978 1.876902 0.258910 -0.757181 0.599702 
6.914922 -22.763874 4.385911 0.381399 -0.810277 0.444956 
6.502095 -21.136372 10.601160 -0.674796 0.730732 -0.103352 
7.502497 -21.926073 5.867895 0.005426 0.938762 -0.344525 
7.855036 -22.652605 4.039886 0.116341 -0.879963 0.460576 
8.039919 -20.019428 11.058552 0.288368 -0.889692 0.353966 
8.692028 -22.524408 4.211737 -0.246091 -0.901178 -0.356816 
8.871329 -21.093500 7.543642 0.367176 0.838600 -0.402408 
9.152607 -19.756941 11.163486 0.220342 -0.654048 0.723651 
9.040289 -22.582228 3.649049 -0.246091 -0.901178 -0.356816 
8.883266 -24.865505 1.084828 0.380319 0.628670 -0.678330 
9.269193 -22.924650 3.812163 -0.246091 -0.901178 -0.356816 
9.547544 -22.328598 5.511313 -0.557745 -0.793288 0.244162 
9.973619 -20.811373 9.017385 -0.694960 -0.658538 0.288716 
10.062313 -23.203104 4.213791 0.478457 0.822123 -0.308532 
10.665661 -23.169964 6.551819 -0.877670 -0.464262 0.118984 
10.973479 -25.227022 3.012255 -0.601591 -0.591746 0.536587 
10.792106 -21.880980 9.111566 0.713010 0.605822 -0.352981 
11.202135 -22.908081 9.206770 -0.874750 -0.375816 0.305900 
11.183816 -25.626112 11.154263 -0.998206 0.022421 0.055517 
11.192861 -24.490498 7.016248 -0.893610 -0.329050 0.305264 
11.363543 -25.098194 7.902687 -0.994215 -0.102176 0.033128 
11.433401 -24.865831 11.358616 -0.998206 0.022421 0.055517 
11.657601 -24.008715 12.385938 -0.975735 0.034296 0.216251 
-1.175111 -31.466045 65.733665 -0.050151 0.062654 -0.996774 
-1.808328 -28.823671 65.953918 0.037301 -0.090592 0.995189 
-0.009622 -35.601074 65.704536 0.158880 -0.056756 0.985665 
-0.917310 -34.779041 65.627960 -0.050880 -0.003410 -0.998699 
0.512606 -39.606468 65.899139 -0.122702 -0.090305 -0.988327 
-0.009566 -29.843361 65.977455 0.037301 -0.090592 0.995189 
0.600051 -34.550144 65.648277 0.158880 -0.056756 0.985665 
1.795630 -29.249050 65.795654 0.081209 -0.046114 0.995630 
1.646515 -32.345985 65.534782 0.200805 -0.019992 0.979427 
3.290430 -40.337440 65.696404 0.222177 0.152765 0.962964 
3.563469 -35.053555 64.986015 0.260245 0.079402 0.962272 
4.218337 -31.857000 64.755417 0.362293 0.034617 0.931421 
3.592853 -27.635118 65.607414 0.237422 -0.128600 0.962857 
3.796318 -38.043514 65.340569 0.162514 0.105296 0.981072 
4.970393 -26.881430 65.119904 0.400165 -0.157066 0.902883 
5.556134 -34.651249 64.195396 0.420989 0.004857 0.907053 
6.158589 -39.178616 64.909401 0.362748 0.114847 0.924783 
6.311272 -32.246918 63.700401 -0.503977 -0.043114 -0.862640 
7.619695 -34.837910 63.147907 0.583984 0.086890 0.807101 
7.864137 -38.350437 63.979065 -0.547656 -0.176599 -0.817854 
7.410577 -31.016964 63.074417 0.637708 0.089315 0.765083 
8.366466 -31.284573 62.235622 0.637708 0.089315 0.765083 
8.688780 -33.900127 62.217522 -0.621467 -0.088059 -0.778475 
8.950080 -38.237270 63.109715 0.370683 0.534967 0.759213 
9.771925 -30.834154 60.713898 -0.773475 -0.089833 -0.627428 
9.897860 -33.326309 60.945641 0.770453 0.081622 0.632250 
9.829361 -37.747997 62.128685 0.745738 0.055446 0.663928 
10.203107 -25.937965 60.376602 -0.757494 0.041045 -0.651551 
10.723245 -36.159302 60.738743 0.801517 0.141536 0.580981 
10.741322 -29.557533 59.259506 -0.774482 0.029553 -0.631905 
11.226796 -38.075024 60.270161 -0.795856 -0.095628 -0.597887 
11.097424 -32.326420 58.994308 -0.796401 -0.104726 -0.595633 
11.907321 -35.728603 58.782444 0.812027 0.152706 0.563288 
-12.241922 -77.277817 74.082176 1.000000 0.000000 0.000000 
13.504451 -40.997612 48.840363 -0.656149 0.749521 -0.087676 
13.483281 -41.298676 46.425083 -0.656149 0.749521 -0.087676 
-1.743988 19.652689 31.530928 0.297903 0.160448 -0.941015 
-1.831489 23.450945 32.133312 -0.279551 -0.106613 0.954193 
-1.218981 33.934826 37.437084 0.463822 0.671792 -0.577550 
-1.007266 32.120926 35.657276 -0.448010 -0.616829 0.647155 
-0.704471 27.333544 33.227665 -0.286103 -0.339750 0.895944 
-0.543888 29.439533 34.132748 0.355223 0.444464 -0.822355 
-0.760119 22.041811 32.426231 0.193991 0.056198 -0.979392 
-0.137300 23.936932 32.809261 -0.217076 -0.160613 0.962851 
0.034721 30.647234 35.224388 0.401738 0.505630 -0.763508 
0.092690 32.582703 36.937073 0.463822 0.671792 -0.577550 
0.208869 33.964016 38.799202 -0.487784 -0.699704 0.521997 
0.466071 25.463335 33.098831 -0.121119 -0.142093 0.982415 
1.412475 34.190872 40.294106 0.337991 0.763855 -0.549806 
1.397747 25.814383 33.249454 0.123532 0.137744 -0.982734 
1.020268 22.417461 32.855778 0.247957 0.057318 -0.967074 
1.138750 28.559141 34.396111 0.246579 0.510197 -0.823953 
1.342843 30.413969 35.746674 -0.311762 -0.533347 0.786349 
1.639847 23.203438 32.756855 0.075222 -0.317147 -0.945388 
1.219880 32.655300 37.953800 0.383411 0.701255 -0.601031 
2.064033 31.020454 36.557003 0.276251 0.704530 -0.653700 
2.225025 26.324286 33.452377 0.007797 -0.426435 0.904484 
2.395743 28.179676 34.355854 0.136458 0.472363 -0.870777 
2.819286 21.018391 32.294006 -0.252436 -0.432319 0.865665 
2.415700 32.592602 38.430901 0.331720 0.731514 -0.595692 
2.973935 23.826569 32.639027 -0.526207 0.331818 0.782945 
3.307724 30.616129 36.474926 -0.265687 -0.713048 0.648825 
3.018994 22.681465 33.591888 -0.513237 -0.231480 0.826441 
4.054253 28.304829 34.787960 0.462457 0.423605 -0.778905 
3.204528 33.708038 40.373688 -0.270911 -0.787572 0.553478 
3.389720 24.482309 33.891415 -0.654823 -0.077329 0.751816 
3.845356 20.116083 33.012836 0.018356 -0.362305 0.931879 
3.464252 26.648598 33.636917 -0.362464 -0.364379 0.857816 
3.667846 32.454582 38.943340 0.331720 0.731514 -0.595692 
4.754683 20.631350 32.706753 0.039208 0.129316 -0.990828 
4.098791 26.766491 34.728916 0.534058 0.405420 -0.741900 
4.085081 31.131603 37.702530 0.311098 0.722967 -0.616877 
5.788232 22.228527 33.087406 0.157418 -0.374974 0.913572 
4.988060 28.087648 35.669441 -0.459501 -0.116484 0.880506 
5.547446 25.524847 34.434265 -0.113359 -0.362197 0.925183 
6.661022 30.052317 37.768566 -0.264180 -0.597872 0.756808 
5.948163 24.267834 33.946449 -0.085974 -0.405426 0.910076 
6.062573 20.568041 32.362778 -0.399479 0.459722 -0.793140 
6.378689 28.141272 36.264519 -0.254605 -0.566590 0.783678 
7.044263 34.283962 42.301346 -0.388493 -0.731114 0.560843 
7.019084 32.557926 40.253567 -0.257104 -0.696432 0.669986 
6.847165 20.420382 31.807323 0.185799 -0.784908 0.591099 
7.042262 25.974430 34.929649 -0.137807 -0.504096 0.852582 
7.155495 19.817028 30.896313 0.185799 -0.784908 0.591099 
7.543805 22.250872 32.877346 0.117329 -0.475012 0.872122 
7.664072 28.382486 36.695309 -0.258931 -0.593649 0.761929 
8.436151 30.634075 38.892090 -0.295210 -0.648207 0.701911 
8.606640 21.155579 32.232296 -0.121683 -0.652453 0.747996 
8.712769 20.151777 30.989937 0.008104 0.900033 -0.435746 
9.030224 25.207760 34.908253 -0.212053 -0.355376 0.910352 
9.410151 31.463610 40.244293 -0.453751 -0.697723 0.554340 
8.916097 19.677414 29.116285 -0.040531 -0.979879 0.195431 
8.946775 33.840588 42.961731 -0.388493 -0.731114 0.560843 
9.331350 28.676914 37.656498 0.426943 0.562589 -0.707964 
10.234562 21.709946 33.244354 -0.367628 -0.649531 0.665551 
9.915589 33.632599 43.686440 -0.433514 -0.721131 0.540404 
10.322200 20.589895 32.400909 0.407328 0.753082 -0.516674 
10.333108 19.759808 30.857271 0.142942 0.941028 -0.306651 
10.286777 19.375658 28.962757 0.142942 0.941028 -0.306651 
10.477873 28.546034 38.296341 -0.565200 -0.629036 0.533726 
10.807936 24.312120 35.220619 0.427921 0.559949 -0.709465 
10.691176 31.134136 41.017685 0.618470 0.313085 -0.720744 
11.443828 27.997530 38.721340 -0.575147 -0.644645 0.503625 
11.741585 20.405745 33.544434 0.585988 0.576216 -0.569731 
11.633447 30.420071 41.498402 0.656273 0.560890 -0.504686 
12.269969 23.557621 36.199238 -0.561656 -0.448603 0.695196 
12.381076 19.414656 33.146091 -0.562307 -0.669865 0.484863 
12.320210 27.281874 39.240135 -0.575147 -0.644645 0.503625 
12.503998 29.358572 41.937538 -0.725937 -0.508468 0.463115 
12.715378 20.591785 34.817474 -0.579910 -0.483963 0.655351 
-10.544632 -57.529324 13.250525 -0.888420 0.135408 -0.438605 
-10.910567 -68.133797 3.655011 -0.975839 -0.192395 -0.103547 
-10.830846 -66.830177 3.054602 0.959504 -0.101994 0.262582 
-10.507721 -65.289986 7.093188 -0.980240 0.189065 -0.058168 
-10.467404 -68.037300 1.969252 0.453598 0.146285 0.879119 
-10.450453 -60.092438 11.981675 -0.964198 0.084383 -0.251399 
-10.504702 -65.521881 3.258736 -0.748975 0.384567 -0.539578 
-10.418349 -69.345474 3.207277 -0.815446 -0.578770 0.008566 
-10.555436 -68.768982 4.745060 0.687009 0.650223 -0.324389 
-10.552818 -60.288597 12.933168 -0.953017 -0.039970 -0.300269 
-10.264227 -66.436584 7.723890 -0.867171 -0.422546 -0.263570 
-10.333498 -66.509239 2.008283 -0.767327 0.295697 -0.569010 
-10.162539 -64.400566 5.881686 -0.848740 0.465143 -0.251559 
-10.124983 -63.778072 9.183954 -0.951151 -0.102532 0.291204 
-10.052036 -63.351429 7.896512 -0.926188 0.363661 -0.099631 
-9.945672 -58.216797 11.346378 -0.888420 0.135408 -0.438605 
-9.772603 -60.431892 9.462297 -0.799356 0.484886 -0.354846 
-9.903714 -68.134941 1.572851 0.550410 0.346391 0.759646 
-9.939483 -63.001537 12.218378 -0.956483 -0.240083 0.165833 
-10.173918 -69.291664 2.320911 -0.508442 -0.605672 -0.612085 
-10.022525 -64.679924 3.212659 0.541791 -0.588232 0.600371 
-9.805385 -64.631493 10.137311 -0.939463 -0.335176 0.071177 
-9.328298 -68.912209 1.862099 0.550410 0.346391 0.759646 
-9.621129 -69.913231 3.125590 -0.548040 -0.680136 -0.486896 
-9.380431 -65.922462 1.678117 0.137866 -0.777204 0.613960 
-9.448586 -68.250313 6.870602 -0.671185 -0.532091 0.516130 
-9.503998 -63.137745 6.303123 0.825329 -0.454231 0.335420 
-9.056325 -65.636040 10.488808 -0.728166 -0.449497 0.517423 
-9.502148 -63.268742 13.036972 -0.667152 -0.516839 0.536457 
-8.622617 -62.438831 5.886603 0.457310 -0.459429 0.761441 
-8.386745 -66.588181 1.761885 -0.159463 -0.541086 0.825711 
-8.963009 -69.501785 1.422514 0.511174 0.339260 0.789686 
-8.743004 -69.994514 6.138615 -0.457667 -0.617658 0.639562 
-8.849009 -61.037647 7.112048 -0.436164 0.537420 -0.721762 
-8.418018 -65.949799 2.028892 0.136590 0.530848 -0.836387 
-8.917623 -57.265076 10.464195 0.605225 -0.437432 0.665098 
-8.867200 -59.276020 8.904506 0.637192 -0.592937 0.492354 
-7.928856 -68.078796 0.711352 -0.306368 -0.083006 0.948287 
-8.134806 -58.551197 8.904074 0.102478 -0.661382 0.743015 
-8.191169 -70.165062 6.484984 -0.294119 -0.430701 0.853224 
-7.911770 -67.022949 9.805576 -0.244395 -0.703435 0.667421 
-8.572980 -68.322067 8.022584 -0.638784 -0.529261 0.558424 
-7.771157 -56.517979 10.245856 -0.033686 0.616524 -0.786615 
-7.490324 -64.081078 3.336063 -0.049282 -0.563556 0.824607 
-7.682274 -69.633133 0.902660 0.062112 0.127281 0.989920 
-7.810063 -60.170032 6.986258 0.418992 -0.463147 0.780987 
-7.256621 -67.097153 1.314245 -0.078321 -0.489503 0.868477 
-7.016547 -60.203503 6.795201 -0.224710 -0.552966 0.802330 
-7.257996 -58.059231 9.173292 -0.046579 -0.463572 0.884834 
-7.109793 -64.756424 2.910323 -0.049282 -0.563556 0.824607 
-7.109454 -60.199749 6.496636 -0.224710 -0.552966 0.802330 
-7.080753 -70.064758 6.832609 -0.285142 -0.682675 0.672792 
-7.285699 -61.860744 5.764802 -0.059324 0.389300 -0.919199 
-6.699068 -68.113815 1.120764 -0.089700 0.062099 -0.994031 
-7.224376 -65.076859 12.563903 -0.203345 -0.691851 0.692815 
-8.917177 -63.757744 3.520920 0.114474 -0.294330 0.948823 
-6.301447 -67.195290 10.270745 -0.044403 -0.473836 0.879493 
-6.019585 -70.544113 6.843478 0.199430 -0.178924 -0.963439 
-6.428251 -56.558140 10.699208 0.510321 0.562146 -0.650818 
-5.278708 -65.173821 2.764325 0.044500 0.602621 -0.796786 
-5.722565 -61.925442 5.895040 -0.207363 -0.747810 0.630699 
-6.260730 -58.037472 9.659394 0.515063 0.383284 -0.766684 
-6.055407 -64.107445 13.380440 0.043516 0.200853 -0.978654 
-6.851341 -69.530930 1.072944 0.048660 -0.051067 0.997509 
-6.379524 -66.633339 1.728537 -0.045678 -0.416557 0.907961 
-5.238719 -67.985840 9.365598 -0.348980 0.695445 -0.628147 
-5.481222 -60.042255 7.549702 -0.489089 -0.653760 0.577399 
-5.379452 -68.184143 0.639278 -0.183709 -0.359814 0.914759 
-5.140539 -55.639805 12.524415 0.600630 0.321786 -0.731914 
-5.816974 -70.328041 1.041409 -0.061148 -0.997167 -0.043795 
-5.191298 -57.849396 11.147531 -0.737548 -0.346178 0.579814 
-5.056914 -69.590225 0.764690 -0.686562 0.164943 0.708115 
-5.322785 -63.624088 13.437486 -0.505391 0.791632 -0.343363 
-5.239747 -63.414928 4.582286 -0.233030 -0.731023 0.641329 
-4.564925 -62.603333 5.649601 -0.254409 -0.744994 0.616652 
-4.718840 -61.800526 6.740551 0.616294 0.577656 -0.535253 
-4.083440 -66.754807 10.120704 -0.517431 0.846903 0.122555 
-4.569752 -68.094780 1.575634 -0.403591 -0.229802 0.885610 
-4.143946 -60.077904 9.325877 -0.746782 -0.550612 0.373020 
-4.520151 -64.316345 3.599683 -0.159606 -0.732435 0.661864 
-4.379976 -69.325882 7.029924 -0.406206 0.693166 -0.595414 
-4.887201 -66.736702 1.811284 -0.018517 -0.374922 0.926872 
-4.136271 -58.704884 12.205184 -0.807649 -0.549452 0.214024 
-4.257238 -62.898422 13.053248 -0.711456 0.360758 -0.603062 
-4.149562 -69.872162 2.187086 0.177030 -0.951365 -0.252121 
-4.031307 -70.078857 3.595465 -0.466353 0.879274 0.096912 
-3.339285 -62.003498 8.260720 0.716362 0.581130 -0.386152 
-3.138158 -64.122314 4.406527 -0.627724 -0.675387 0.387060 
-3.277137 -69.491272 6.150912 -0.527577 0.715409 -0.458097 
-3.673590 -59.235516 13.466536 -0.868124 -0.452984 0.202897 
-3.275676 -68.829468 7.254929 -0.527577 0.715409 -0.458097 
-3.491535 -69.443810 1.822070 0.498417 -0.481476 -0.720945 
-3.189753 -69.827370 2.580325 -0.562564 0.810574 0.162764 
-3.268461 -69.943726 4.231511 -0.531336 0.840213 -0.108279 
-3.544518 -60.547924 10.183398 -0.904484 -0.408411 0.122921 
-3.184318 -67.991661 1.441458 -0.345182 0.135550 0.928696 
-3.553050 -66.085541 2.000973 0.255097 0.483992 -0.837065 
-3.290852 -66.291313 9.603174 -0.818170 0.554285 -0.152856 
-3.251641 -63.161839 11.373149 -0.916834 0.007041 -0.399206 
-3.089978 -61.578526 10.271358 -0.915454 0.013105 0.402209 
-2.670358 -64.013290 6.448730 -0.910197 -0.327223 0.253904 
-3.165496 -61.714485 11.370520 -0.836732 -0.284271 -0.468048 
-2.852193 -68.080284 7.386864 -0.687965 0.526685 -0.499306 
-2.533916 -63.940342 9.316822 -0.976981 -0.043004 -0.208947 
-2.526926 -63.315449 7.683092 -0.843383 -0.469149 0.261925 
-2.513715 -67.123016 2.024254 -0.705655 -0.176012 0.686346 
-2.522323 -64.334846 6.850323 0.982266 -0.036124 -0.183980 
-2.229618 -65.942856 3.093263 -0.881898 -0.342324 0.324145 
-2.482189 -68.921387 5.567536 -0.669478 0.704528 -0.235455 
-2.478920 -68.722092 2.433429 -0.721836 0.302019 0.622686 
-2.438582 -69.161842 4.069804 -0.871493 0.489413 0.031219 
-2.374469 -67.101685 6.733082 -0.934405 0.171268 -0.312338 
-2.534275 -65.057831 7.947385 -0.999831 0.015103 0.010464 
-2.185282 -64.084015 8.135070 -0.999831 0.015103 0.010464 
-2.187217 -65.637115 5.962617 -0.990002 -0.094508 -0.104714 
-2.099955 -67.867424 3.848595 -0.993259 0.100600 0.057593 
-13.342703 34.560722 37.763256 -0.456148 0.889714 -0.018395 
-12.893794 35.090225 32.312222 -0.607027 0.758466 0.237166 
-12.671771 36.083939 30.315043 0.473011 -0.824155 -0.311496 
-12.082302 35.409683 36.298866 -0.456148 0.889714 -0.018395 
-12.009816 35.467651 34.290462 0.426614 -0.903265 -0.045964 
-11.500530 35.899609 38.319347 -0.460868 0.885085 -0.065004 
-11.418003 36.859356 30.970194 -0.493896 0.775951 0.392386 
-11.381993 36.057846 32.823929 -0.409402 0.910210 0.062514 
-10.464661 36.775337 43.375580 -0.190636 0.974115 -0.121480 
-11.167361 38.947769 28.834602 0.007988 0.760072 0.649789 
-10.417780 36.110493 34.210407 0.203442 -0.978678 -0.028291 
-10.123775 36.142166 35.925182 -0.252172 0.966067 0.055884 
-10.539264 38.231106 29.622032 0.007988 0.760072 0.649789 
-10.044040 37.047401 31.210627 -0.046554 -0.882895 -0.467258 
-9.829039 36.486065 32.526665 0.023044 -0.957694 -0.286866 
-9.777921 36.695015 40.070229 -0.229568 0.964231 -0.132501 
-9.660264 37.914989 29.638338 -0.501985 -0.769656 -0.394513 
-8.802673 36.240746 33.456383 0.153665 0.966516 0.205508 
-8.590172 36.498150 31.245659 0.431486 0.852250 0.295787 
-8.363898 36.304661 35.686253 -0.149078 -0.988482 -0.026042 
-8.397894 36.844528 29.397266 -0.718626 -0.636093 -0.281002 
-7.422251 37.447613 41.702923 0.055404 -0.973079 0.223715 
-7.843104 35.948601 33.031773 -0.636850 -0.765930 -0.088169 
-7.651573 35.715294 31.453226 -0.636850 -0.765930 -0.088169 
-6.770866 37.056744 39.165142 -0.182965 -0.964730 0.189263 
-7.310615 35.137863 29.028908 -0.749654 -0.661804 -0.005926 
-7.007095 35.987362 34.952332 0.288426 0.953251 -0.090129 
-6.661510 34.706371 32.003178 -0.678251 -0.707317 0.199193 
-6.574381 35.586475 34.607044 0.288426 0.953251 -0.090129 
-5.493752 36.622314 38.880302 -0.289708 -0.927802 0.235057 
-5.784839 37.378532 41.921474 0.163348 0.970688 -0.176300 
-4.641266 35.696426 37.371090 -0.305638 -0.861217 0.406066 
-4.432347 36.202866 37.907001 -0.305638 -0.861217 0.406066 
-2.164207 36.717087 42.109634 0.221023 0.946919 -0.233438 
-2.201419 34.760601 37.266724 -0.305638 -0.861217 0.406066 
-2.354720 35.857800 39.271301 -0.363417 -0.860606 0.356771 
13.091179 16.139023 28.204884 -0.998104 -0.057664 0.021517 
12.994961 16.577877 22.362507 -0.983308 -0.181032 0.018221 
13.441494 10.844364 28.073610 -0.998104 -0.057664 0.021517 
13.336935 14.762997 25.523796 -0.983308 -0.181032 0.018221 
13.521852 14.997678 27.985378 -0.998104 -0.057664 0.021517 
13.714780 13.013359 28.335899 -0.998104 -0.057664 0.021517 
-15.004769 -35.981388 42.529987 -0.996808 0.041992 -0.067900 
-14.990335 -40.164513 42.109901 -0.996808 0.041992 -0.067900 
-14.689649 -32.386253 43.238564 -0.995269 0.070323 -0.067036 
-14.530535 -37.456787 36.993507 -0.991872 0.039069 -0.121095 
-14.558376 -33.451717 38.742809 -0.990784 0.069754 -0.116111 
-14.300384 -34.917393 35.553673 -0.973926 0.100598 -0.203343 
-14.580593 -29.299126 42.791851 -0.998982 0.015802 -0.042253 
-14.466250 -26.865091 38.814774 -0.996950 0.009849 -0.077416 
-14.312768 -30.420704 38.981026 -0.996950 0.009849 -0.077416 
-14.188069 -38.865883 33.634678 -0.967459 0.161356 -0.194904 
-14.027952 -37.306995 33.329926 0.949721 -0.131761 0.284023 
-14.043088 -31.244310 36.471611 -0.978762 0.114510 -0.170039 
-13.652693 -32.361195 34.405590 -0.971263 0.094674 -0.218371 
-13.551811 -40.058849 29.726358 -0.940474 0.212859 -0.264951 
-13.161676 -36.405819 31.036802 -0.935506 0.130398 -0.328367 
-13.246387 -33.946476 32.704708 -0.945440 0.140660 -0.293869 
-12.144719 -34.965851 29.299824 -0.925634 0.206305 -0.317237 
-11.301170 -28.561132 28.820911 -0.939072 0.121811 -0.321412 
-2.187157 -56.692741 43.025509 1.000000 0.000000 0.000000 
-1.514533 35.408028 39.547241 0.261146 0.917977 -0.298531 
-0.477472 35.599922 41.170597 0.261146 0.917977 -0.298531 
-0.575040 36.246338 42.841583 0.261146 0.917977 -0.298531 
1.187901 35.421852 42.488655 0.261146 0.917977 -0.298531 
2.726984 35.270737 42.627132 0.261146 0.917977 -0.298531 
-17.034178 18.972282 40.482403 -0.993602 -0.112918 0.002216 
-16.749582 18.154911 34.131474 0.989369 0.116124 0.087542 
-16.849340 17.403711 42.993984 -0.988389 -0.151869 -0.004713 
-16.808617 16.761599 37.578346 -0.990845 -0.129699 -0.037476 
-16.666954 15.579488 42.902508 -0.988389 -0.151869 -0.004713 
-16.498457 14.327175 39.629631 -0.973431 -0.227042 -0.029718 
-16.288000 18.127275 29.861195 -0.982645 -0.132168 -0.130152 
-16.429514 15.736286 33.135944 -0.979032 -0.180468 -0.094482 
-16.126408 13.318905 36.131237 0.957754 0.283438 0.048681 
-16.075644 14.214577 32.592533 -0.959266 -0.252365 -0.126967 
-15.985846 12.565538 40.907890 -0.944057 -0.325223 0.054655 
-15.684914 14.994761 29.223030 -0.941554 -0.242736 -0.233569 
-15.524125 11.846576 34.319370 -0.918139 -0.383200 -0.100889 
-15.450291 12.716268 31.188271 -0.914734 -0.362034 -0.179424 
-15.595025 11.650593 38.042076 -0.930553 -0.364861 -0.030772 
-14.328663 8.627652 42.570213 -0.925809 -0.377819 -0.011398 
-14.319287 9.946882 32.458778 -0.871476 -0.441889 -0.212755 
-14.511668 9.475175 36.281040 -0.886615 -0.457205 -0.069837 
-14.516315 11.618089 29.659330 -0.864263 -0.419158 -0.278130 
-13.518271 7.048702 40.130230 0.916258 0.394331 0.070524 
-13.027711 8.447824 30.829988 -0.799855 -0.496626 -0.337040 
-13.492751 10.123473 29.639269 -0.724911 -0.504262 -0.469280 
-13.117248 7.439049 33.615002 -0.845455 -0.495047 -0.200333 
-13.023130 4.991242 41.314011 0.916258 0.394331 0.070524 
-12.451336 5.552112 35.535477 -0.868697 -0.424511 -0.255258 
-12.512077 8.513071 29.681629 -0.704187 -0.560751 -0.435521 
-11.867011 5.538287 32.972340 -0.771204 -0.570733 -0.281972 
-11.891893 8.537188 29.020376 -0.704187 -0.560751 -0.435521 
-11.199205 5.810986 31.408892 0.584264 0.376777 0.718800 
-10.328586 4.724257 31.634907 0.584264 0.376777 0.718800 
-9.677266 4.731347 31.189196 0.584264 0.376777 0.718800 
-8.809266 6.038070 30.097136 0.307244 0.352632 0.883885 
-7.839574 8.377807 28.949972 0.004677 -0.373764 -0.927512 
-6.924998 7.001572 29.581551 0.070361 0.314286 0.946717 
-5.538812 5.133650 29.996075 -0.023927 0.072252 0.997099 
-6.292975 9.045735 28.951490 -0.137313 0.437206 0.888817 
-3.756303 5.706906 30.003017 -0.152564 0.190922 0.969677 
-4.246744 17.123568 29.185778 -0.320234 0.034568 0.946708 
-2.458556 11.010067 30.048954 -0.305992 0.025287 0.951698 
-2.820157 7.896921 30.023621 0.259901 -0.113403 -0.958953 
-2.317348 13.719510 30.238758 -0.320234 0.034568 0.946708 
-12.951954 -13.874696 60.065372 -0.829697 -0.154173 0.536502 
-12.199330 -14.705004 61.209995 -0.829697 -0.154173 0.536502 
-11.496045 -15.365622 62.134018 -0.829697 -0.154173 0.536502 
-11.112588 -25.117733 59.794556 -0.751235 -0.188029 0.632686 
-10.771653 -18.744267 62.082207 -0.775545 -0.173777 0.606903 
-10.535129 -22.000055 61.405663 -0.751235 -0.188029 0.632686 
-10.599758 -13.330798 63.903679 -0.778313 -0.154225 0.608641 
-9.834933 -10.714514 65.304642 -0.622933 -0.182366 0.760721 
-9.359094 -14.920649 64.818840 0.671214 0.163592 -0.722986 
-9.037661 -22.556314 63.046997 -0.751235 -0.188029 0.632686 
-8.022427 -11.506605 66.675751 -0.560207 -0.159830 0.812787 
-8.136279 -24.785881 63.407448 0.638744 0.210907 -0.739949 
-7.726165 -15.904634 65.927063 0.561738 0.176100 -0.808356 
-6.375724 -18.674652 66.200165 0.500846 0.191656 -0.844050 
-6.430099 -13.635969 67.276047 -0.467771 -0.181329 0.865049 
-5.169177 -16.480892 67.366524 -0.470058 -0.169121 0.866281 
-5.135473 -11.927840 68.225098 -0.401206 -0.078594 0.912610 
-3.647231 -23.220444 66.814377 0.530321 0.192912 -0.825557 
-3.990731 -13.276135 68.464241 -0.349560 -0.161552 0.922881 
-2.493357 -12.519590 68.959938 -0.349560 -0.161552 0.922881 
-2.522238 -19.785671 67.793716 -0.421453 -0.169030 0.890958 
-1.611878 14.824144 69.561691 0.065892 0.102270 0.992572 
-0.575911 9.836776 70.011002 0.069006 0.091429 0.993418 
0.469587 13.315686 69.744743 0.069006 0.091429 0.993418 
0.231045 17.598913 69.243607 0.084412 0.119870 0.989195 
0.742773 4.453414 70.136612 0.152954 0.026291 0.987884 
2.806599 10.398498 69.694885 -0.148374 -0.048025 -0.987764 
2.249338 17.289087 69.130310 0.172432 0.142697 0.974631 
2.918597 4.896676 69.814446 0.309854 0.011800 0.950711 
3.294756 13.585870 69.378426 -0.233731 -0.089085 -0.968211 
3.902175 17.503222 68.771095 -0.115415 0.453409 -0.883799 
4.551998 4.615646 69.325035 0.309854 0.011800 0.950711 
4.949775 11.950556 69.016518 0.349166 0.083183 0.933362 
5.169329 17.058079 68.434486 0.317277 0.284218 0.904741 
6.192889 11.570160 68.511505 -0.426328 -0.072739 -0.901640 
6.396849 16.518621 67.963928 0.478987 0.169391 0.861323 
7.383909 7.259451 68.000587 -0.580588 0.045242 -0.812940 
7.535470 13.847766 67.632195 0.534447 0.079195 0.841484 
7.569865 18.998064 66.831413 -0.463707 -0.114459 -0.878564 
8.737205 15.701916 66.503227 0.611945 0.109833 0.783236 
8.721853 11.028127 67.010231 0.593114 0.079952 0.801139 
10.110475 14.098283 65.410736 -0.712954 -0.118583 -0.691112 
10.063911 11.238236 65.833702 0.730085 0.040520 0.682154 
10.886497 8.211151 64.948395 -0.849638 -0.005387 -0.527339 
11.433956 10.732572 64.146034 -0.843308 -0.034437 -0.536326 
11.458419 14.196753 63.545776 -0.810362 -0.087333 -0.579385 
12.900252 17.825310 59.885120 -0.802583 -0.205637 -0.559976 
12.038186 12.658554 62.826057 -0.841501 -0.058682 -0.537060 
12.360567 6.955156 62.299656 0.877048 -0.001068 0.480401 
12.496969 9.668199 62.125000 0.877048 -0.001068 0.480401 
-16.021486 19.901451 27.878407 -0.908268 -0.141509 -0.393732 
-15.749871 22.347830 26.690329 -0.908268 -0.141509 -0.393732 
-15.194705 27.883121 26.104750 -0.945232 -0.002714 -0.326388 
-15.035164 31.373335 26.207111 -0.966588 0.050578 -0.251294 
-15.249616 21.966116 25.196856 0.863323 0.047210 0.502439 
-14.879189 33.954243 26.412571 -0.907036 0.169634 -0.385370 
-14.680996 27.848595 24.528051 -0.861489 -0.069823 -0.502952 
-14.786901 22.302736 24.255377 -0.496679 0.844778 -0.199149 
-14.437901 31.079174 23.801006 -0.919065 0.080003 -0.385900 
-14.390201 19.558495 24.436983 -0.696184 -0.145639 -0.702934 
-14.026615 26.823689 23.342510 -0.786141 -0.270592 -0.555664 
-13.792755 23.096674 23.280460 -0.453660 -0.533704 -0.713689 
-13.605789 31.276901 22.351557 0.394894 0.695483 0.600302 
-13.237188 19.951071 23.571634 -0.453505 -0.133403 -0.881214 
-12.899299 32.307529 21.422316 0.329817 0.433790 0.838479 
-12.973022 27.863251 22.442366 0.545300 0.516469 0.660232 
-12.704790 34.242325 20.429426 0.150909 0.346768 0.925731 
-12.635997 22.873381 22.798649 0.356629 0.558883 0.748642 
-11.978424 26.571924 22.212227 -0.094855 -0.231913 -0.968101 
-11.577721 31.222267 21.276575 0.118837 0.229925 0.965926 
-11.450154 21.777220 22.725492 0.188432 0.172286 0.966856 
-10.913194 34.068146 20.102440 0.150909 0.346768 0.925731 
-10.665376 26.359827 22.267025 -0.094855 -0.231913 -0.968101 
-10.465784 30.857859 21.410175 -0.087217 0.292716 0.952213 
-10.147962 21.502499 22.860966 0.209142 -0.111433 -0.971515 
-9.825571 33.697166 20.388643 0.088831 -0.524407 -0.846821 
-9.000588 26.761568 22.888643 -0.471950 0.255789 0.843703 
-9.159187 31.758589 21.661032 -0.571088 0.394404 0.719933 
-8.749069 22.943718 23.393764 -0.418328 0.094246 0.903393 
-8.783494 20.056469 23.916939 -0.418328 0.094246 0.903393 
-8.768189 29.446281 22.584249 -0.612533 0.122532 0.780890 
-8.266448 32.997780 21.880522 -0.571088 0.394404 0.719933 
-7.589235 27.688807 24.300777 0.851250 -0.142355 -0.505082 
-7.942080 22.772051 24.244089 -0.699644 0.101872 0.707191 
-7.692808 31.224663 23.444122 -0.832282 0.190867 0.520458 
-7.220827 31.812883 24.594187 -0.948793 -0.021604 0.315157 
-6.939670 33.419899 25.921247 -0.956342 -0.015893 0.291817 
-6.661574 23.564827 25.896141 -0.776588 -0.065544 0.626590 
-6.806179 29.314907 26.037033 0.947078 -0.050078 -0.317075 
-6.308053 25.070965 26.607159 -0.889535 0.004573 0.456845 
-6.291369 30.187218 27.860577 -0.952868 -0.059954 0.297401 
-5.690373 20.213703 26.941780 -0.735236 0.057381 0.675378 
-5.658233 27.368843 28.537365 0.914850 0.080472 -0.395695 
-5.022108 21.607265 27.832323 -0.787127 -0.057245 0.614129 
-12.272385 -65.822746 58.230618 -0.982046 0.117202 -0.147812 
-11.874855 -67.730301 55.835526 -0.961306 0.032343 -0.273577 
-12.252469 -69.335686 57.768711 -0.961306 0.032343 -0.273577 
-12.032846 -69.291580 56.308487 -0.961306 0.032343 -0.273577 
-11.512042 -62.261456 58.579784 0.983952 -0.148434 0.099023 
-11.410658 -63.561497 55.800873 -0.970171 0.072409 -0.231354 
-11.205909 -59.966370 56.206436 -0.993128 0.097625 -0.064547 
-11.016059 -69.498543 53.515648 -0.895747 -0.054559 -0.441204 
-11.095811 -58.914738 58.374558 -0.993128 0.097625 -0.064547 
-11.012725 -60.220802 54.906174 -0.957717 0.023626 -0.286742 
-10.650035 -65.400551 53.395832 0.917814 -0.044617 0.394495 
-10.728417 -56.861378 53.424000 -0.938938 -0.089629 -0.332209 
-10.179490 -62.080372 52.579315 -0.914052 -0.045464 -0.403041 
-10.351363 -58.799213 52.659889 -0.933969 -0.040547 -0.355047 
-9.914867 -68.246582 51.648212 0.832282 -0.056923 0.551422 
-9.314472 -62.587753 50.863056 0.847222 -0.008509 0.531171 
-8.913720 -70.508087 50.256832 0.792722 0.015648 0.609382 
-9.301022 -57.770542 50.053402 0.874417 0.199022 0.442476 
-8.677229 -61.731026 49.762177 0.844648 0.015715 0.535091 
-8.475495 -65.047112 49.602173 -0.802404 -0.019065 -0.596476 
-8.355008 -57.418781 48.369404 0.788914 0.194399 0.582944 
-7.653346 -66.762871 48.693588 0.708480 0.064713 0.702757 
-7.555306 -62.400188 48.441418 -0.716094 -0.136159 -0.684595 
-7.614478 -55.948708 46.790516 0.711903 0.333682 0.617941 
-7.142984 -59.995125 47.558891 -0.614855 -0.178340 -0.768211 
-6.591969 -57.445621 46.464897 0.711903 0.333682 0.617941 
-6.754384 -68.772957 48.014088 -0.622214 -0.098490 -0.776627 
-6.109743 -63.129574 47.176228 0.551788 0.131522 0.823548 
-5.841903 -55.894993 44.651703 -0.656843 -0.342682 -0.671659 
-6.153796 -58.650509 46.519501 -0.664685 -0.185053 -0.723843 
-5.910966 -61.444592 46.870659 0.551788 0.131522 0.823548 
-5.043258 -66.843864 46.706905 -0.556515 -0.037615 -0.829986 
-5.432908 -70.244820 47.385143 0.509322 0.100662 0.854669 
-4.834570 -56.827442 44.654701 0.520981 0.466569 0.714767 
-3.580153 -59.172829 45.062542 0.508029 0.328785 0.796120 
-3.803961 -62.259167 45.854935 0.484652 0.065757 0.872232 
-3.208282 -60.930477 45.365231 -0.465207 -0.227873 -0.855369 
-2.875890 -70.364388 46.230602 -0.443450 -0.117105 -0.888616 
-3.237663 -64.287819 45.608498 -0.495231 -0.040117 -0.867835 
-2.960650 -58.014053 44.276115 -0.343570 -0.309086 -0.886806 
-13.462811 16.329945 59.187130 0.883871 -0.118727 -0.452412 
-13.435384 4.585147 61.039837 -0.838328 -0.065821 0.541179 
-13.037791 18.987993 59.800507 0.883871 -0.118727 -0.452412 
-12.778263 8.650136 62.461552 -0.874217 0.041923 0.483721 
-12.148227 7.766289 63.825901 0.831469 -0.049871 -0.553328 
-12.205108 11.487919 63.342655 -0.845343 0.059323 0.530920 
-11.403184 11.689310 64.736458 0.770084 -0.061709 -0.634951 
-11.594571 18.002943 62.903271 -0.876883 -0.036822 0.479292 
-11.426336 8.389081 64.936211 0.834492 -0.017223 -0.550750 
-10.450721 17.080301 64.916283 -0.755696 0.171692 0.632016 
-10.345600 8.723030 66.128197 0.692336 0.069219 -0.718247 
-10.273496 12.691471 65.959114 0.680964 -0.074236 -0.728545 
-9.250987 10.936782 67.015984 0.575496 -0.030540 -0.817234 
-9.228316 15.742281 66.528816 0.633230 -0.150642 -0.759162 
-8.099829 18.998007 66.831551 -0.588024 0.121243 0.799705 
-8.063013 13.849203 67.633896 -0.566357 0.062292 0.821803 
-7.914165 7.268310 68.000259 0.524198 0.016501 -0.851436 
-6.926968 16.516981 67.964272 -0.509357 0.128648 0.850885 
-6.722819 11.562749 68.512291 0.425259 -0.019907 -0.904853 
-5.699098 17.058014 68.434807 -0.412473 0.140454 0.900077 
-5.479899 11.944933 69.017197 0.425259 -0.019907 -0.904853 
-5.080884 4.597390 69.325417 0.377854 -0.006939 -0.925839 
-3.990025 17.525597 68.887970 0.391575 -0.099604 -0.914739 
-3.786870 12.191724 69.507050 -0.374734 0.081039 0.923584 
-3.447627 4.888302 69.814789 -0.363512 0.020173 0.931371 
-14.550747 -42.809185 42.154854 -0.938958 -0.341957 -0.037723 
-14.305357 -42.829300 38.057957 -0.949979 -0.311928 -0.015549 
-13.983123 -40.953232 32.652603 -0.990398 -0.106419 -0.088248 
-14.146076 -44.143265 43.302013 -0.913253 -0.404793 0.045957 
-13.821409 -44.690235 32.979259 -0.980586 -0.195619 -0.013597 
-13.404160 -46.487354 33.324806 -0.891739 -0.452425 -0.010603 
-13.181194 -46.515633 39.255806 -0.869138 -0.478586 -0.124719 
-13.073125 -46.739651 29.002350 -0.832757 -0.553198 -0.022096 
-12.945603 -46.838612 41.965073 -0.844387 -0.534781 0.031936 
-12.569949 -47.855389 29.426311 -0.732176 -0.676039 -0.083009 
-12.381865 -48.189526 32.937588 -0.749915 -0.660808 0.030972 
-11.862756 -48.323380 38.931393 -0.773588 -0.633393 0.019380 
-12.144894 -48.174034 43.462326 -0.774912 -0.625634 -0.089961 
